VERSION .7
FIELDS x y z intensity
SIZE 4 4 4 4
TYPE F F F F
COUNT 1 1 1 1
WIDTH 792
HEIGHT 1
VIEWPOINT 0 0 0 1 0 0 0
POINTS 792
DATA ascii
5.416263927220157	0.2601618126652526	-1.054028890460034	15.0
11.61429122239427	0.5558426765626222	1.017281829350666	23.0
14.36256732454148	0.6823461957144821	-2.277372942055681	12.0
11.62964165433093	0.5484399783123285	1.42952739814238	16.0
11.21729298026967	0.5270319836231144	-1.378829751285839	18.0
11.1852541211837	0.5177009107782538	-0.9796305484836778	13.0
16.40911508487951	0.7566132672219608	3.192997728631101	33.0
11.26872740748436	0.5156516189276109	-0.5911869617202934	13.0
16.40707446898588	0.7450408919737385	3.791774972020189	27.0
16.28086905920419	0.7364625532906933	-0.2844742249277212	5.0
16.46597989307897	0.7390766312873329	4.416488185629414	23.0
7.65489056019937	0.323511767247259	-2.052952665753195	14.0
11.20445490968935	0.4696057980940755	0.1957461906005719	25.0
8.210688623508226	0.3426942716314762	-1.897237192336158	19.0
11.52630056832638	0.4770495014762264	0.604584966518487	7.0
10.86924364340317	0.4460547618495401	-2.11454528676287	21.0
11.32525165508945	0.4627885895823668	0.9916580409828546	22.0
14.42027240823113	0.5842197847297476	-2.285820403167854	20.0
11.7363286917814	0.4713796539046358	1.442201809856515	10.0
10.84978316547254	0.4338756214533298	-1.333250616852313	15.0
11.12090673581582	0.4369416156725184	-0.9737039579768371	13.0
11.10241309148968	0.430392933823179	-0.582289849158993	17.0
16.44498012822245	0.63175241194566	3.79942330786788	13.0
22.00456178337976	0.8414838330404943	-0.3843717993747321	9.0
16.47459924767046	0.6242516263620166	4.417523461809824	11.0
7.552660764492686	0.2677041847265603	-2.025000208882122	26.0
11.21938261725769	0.3937500257411334	0.1959556194778193	8.0
8.257624761283745	0.288362610838139	-1.907584940835975	24.0
11.58716662865116	0.400583207595846	0.6076204519805778	5.0
11.25446365377112	0.3831814790768097	0.985208516019528	22.0
13.99550140351815	0.4716148184538576	-2.217927845340393	16.0
11.75712126669757	0.3920781567079904	1.444395458037808	9.0
10.95763714290802	0.3635022619386081	-1.346168767253259	24.0
11.1076925352784	0.3607171244434844	-0.9723094660928745	13.0
11.59815684537142	0.3705656414807383	-0.6081438115430073	36.0
21.19030922764053	0.6659322953287122	-0.3700608260961596	2.0
7.625795212031648	0.2170037785837612	-2.044152818219709	28.0
11.68360535785526	0.3283934225862933	0.2040186312518443	16.0
8.691888299852678	0.2427864237091111	-2.007463208964651	8.0
22.03736383067203	0.6078608903360749	1.155368570019228	21.0
10.82725988652429	0.2948681482097308	-2.105386454984795	5.0
11.53171361281825	0.3120389998947547	1.009263501017882	11.0
13.82863098042483	0.3693611654544226	-2.191021117353474	16.0
10.94998575662115	0.2867354682065952	-1.344950073819208	18.0
11.22147769324166	0.2860054356557132	-0.9820709092806122	15.0
11.29697239108687	0.2820107485426763	-0.5922336808451524	10.0
21.28440131218288	0.5201795636471919	-0.3716315426755151	13.0
7.706312003852973	0.165461055384258	-2.065375979918116	14.0
11.70760498092639	0.2472836310044394	0.2044025841934645	17.0
8.888202713752431	0.1861813058768507	-2.052453419833424	11.0
10.6366950873381	0.2153780350683594	-2.067987891890993	7.0
13.9612220989699	0.2753820070192959	-2.211670466738784	12.0
11.69793846219712	0.2266543280764692	1.436595820059879	4.0
10.89614834683719	0.2092167363753435	-1.338125390588519	18.0
11.26104983250277	0.2083587126751166	-0.9853828275050233	8.0
11.21279761912467	0.2015929605587915	-0.5877327886082592	20.0
21.21753545632665	0.3703534590069375	-0.3704098742249052	21.0
7.730459120630401	0.1119930644666028	-2.071587637000576	20.0
11.68505207947185	0.1652045380084079	0.2039837264389697	7.0
8.844469240674428	0.1235001128381703	-2.042105671333606	16.0
22.98232755881706	0.3128908123358702	1.204564368887595	4.0
10.6438287336723	0.1411933718281498	-2.069132745863252	13.0
13.57566198245398	0.1729755596488515	-2.150348156443014	12.0
10.96086162484883	0.1339188500350588	-1.345925028566449	18.0
11.44352542129209	0.1318257805456562	-1.001245172685097	15.0
11.08411775239334	0.1218811521163938	-0.5809291142966765	17.0
11.75356501349352	0.1230875443857182	-0.205170490076705	11.0
7.638326319612872	0.05732607203353223	-2.046741008670734	16.0
11.63992884245823	0.08329500577425682	0.2031809157428546	10.0
8.81783419667035	0.0615610959917075	-2.035807041811979	22.0
10.86836163874383	0.06828882880900303	-2.112637196809104	10.0
13.93605133342265	0.08026678112431765	-2.207290301717658	16.0
11.32678141568531	0.05930743079051282	-1.390772946939543	13.0
11.15726574166633	0.05063041343508837	-0.9761443187737715	11.0
11.26045590631783	0.04520260989589105	-0.5901402425954346	21.0
11.74813884396938	0.04100890732224705	-0.2050657756380813	5.0
7.362285638768959	0.003854884098344038	-1.972718761771413	28.0
11.70221724587544	0.00204242222798366	0.2042629649419662	16.0
8.812202865917667	5.395918016591602e-16	-2.034457335485915	22.0
22.4112426535911	-0.007822999793105523	1.174523530004145	32.0
10.74685178544189	-0.007502719134104422	-2.088976881382413	15.0
13.55700004524155	-0.01656300836456169	-2.147219467142209	8.0
11.49168184084865	-0.02005678883693826	-1.411003257944797	18.0
11.11550725864917	-0.02716036201066763	-0.9724837775783698	13.0
11.24052456535492	-0.03335140563297526	-0.5890935234705758	12.0
11.77013535925171	-0.04108568995722933	-0.2054497285797015	9.0
7.344746834666539	-0.04743096487227209	-1.968060018959568	34.0
11.72394246949468	-0.07980357748725424	0.2046469178835865	6.0
8.889935824355833	-0.06206446848931816	-2.052453419833424	13.0
10.64052490406414	-0.08171497159259321	-2.068369509881746	10.0
13.52889969696041	-0.1109806959332228	-2.142839302121082	8.0
11.55478230995037	-0.1008370575699334	-1.418802895922727	15.0
11.15688508709773	-0.1051542781915335	-0.9761443187737715	13.0
11.13816263483249	-0.11081029370533	-0.5837552559337954	11.0
11.71557288432435	-0.1226896771956328	-0.2045072986320882	22.0
7.216746025150055	-0.09699194338591019	-1.933895905006035	19.0
21.14276915372848	-0.291537113539439	0.3690834913356717	28.0
8.671048275171009	-0.1210785419982032	-2.002064383660398	13.0
10.71821686375669	-0.1571485255681748	-2.083634229511869	13.0
13.04585887602794	-0.1981083021320228	-2.06649928318145	4.0
11.60341794349387	-0.1822810551015409	-1.424896363092984	20.0
11.35907546147167	-0.1863747926215436	-0.9939240902942937	13.0
27.7898742447574	-0.4705190135452418	-1.456614334153613	33.0
11.83039552347199	-0.2065003219886978	-0.2065317777788131	8.0
7.16570079419036	-0.1450953086713616	-1.920437314660704	25.0
8.631056855333828	-0.1792878089217955	-1.993066341486644	19.0
10.48136265752721	-0.2250437467769912	-2.037840070621499	13.0
12.87436686701121	-0.2831677637004468	-2.03959255519453	4.0
11.55427825921285	-0.260185621210144	-1.419046634609537	13.0
27.81198481993464	-0.6602825712170386	-1.457975069015929	66.0
11.70077302222596	-0.2839173519929871	-0.2042978697548408	2.0
7.145201866602582	-0.1945914723643112	-1.915260933758654	31.0
8.707514460189145	-0.2417019755711181	-2.011062425834153	8.0
10.48542352499489	-0.2983789180943323	-2.038984924593758	10.0
12.79309435311084	-0.3707512283111243	-2.027077797991312	4.0
11.49463762989591	-0.3391449310602131	-1.411978212692039	20.0
27.83664220979057	-0.8553493122239116	-1.459545147703218	55.0
7.155296206008037	-0.2436168499715319	-1.918366762299884	25.0
8.643345088690346	-0.2988115223461162	-1.996665558356146	11.0
11.3974576497761	-0.4019913549216316	-2.216818908284698	5.0
12.70341343680283	-0.4547126517063327	-2.013311565067772	4.0
11.71718617965598	-0.4337453341666397	-1.025823092139937	8.0
27.8581171541771	-1.045855049157171	-1.46101055447802	55.0
7.570350105460576	-0.3106739368620474	-2.030176589784173	10.0
8.631313079848974	-0.358741056829497	-1.994416047812707	11.0
11.41398852990821	-0.4823791498534977	-2.220635088192228	5.0
12.68019368617856	-0.5425429816804945	-2.010182875766966	4.0
12.7006243852016	-0.5500794982418334	-1.560902550333129	9.0
11.70790116313671	-0.5152726859405466	-1.025300157683451	11.0
27.88006610521801	-1.241647236602932	-1.462580633165308	56.0
7.34608963154538	-0.3528579885000466	-1.970648209410593	14.0
8.632491169565244	-0.4191787900354563	-1.995315852030083	11.0
10.86494419096542	-0.540888962830374	-1.722969197953103	3.0
12.71630048223811	-0.6397298540652382	-1.563339937201232	26.0
7.320300025301125	-0.402860486339266	-1.964436552328132	14.0
12.67981502756275	-0.7266728180578088	-1.559440118212267	14.0
23.32999389457769	-1.365626964672378	-1.224766047997371	29.0
7.328878029072786	-0.4546733051951947	-1.967542380869363	16.0
10.97869761466554	-0.7061122997344598	-1.350799802302655	4.0
11.69083701404672	-0.7662579411091804	-0.614005438642217	7.0
7.313961661042184	-0.505028566204152	-1.964436552328132	16.0
10.60916921225041	-0.7567524712208821	-1.305951883929561	6.0
16.74785231124786	-1.441686674657526	-1.470666003123984	2.0
5.558589066070648	-0.5009806611426475	-1.495456442602365	2.0
10.16008030630029	-0.9389452110595058	-1.252816850204916	2.0
5.458816356965826	-0.5304325196607921	-1.469574538092113	2.0
10.07821454892066	-1.002386659328154	-1.243554780106125	2.0
5.454980241971573	-0.568529011301201	-1.469574538092113	2.0
10.09465814110743	-1.075243930650079	-1.246479644347848	2.0
5.270398316583213	-0.5865131889893983	-1.420916557612839	2.0
7.275065320426061	-0.8186008521838571	-1.423053487518271	18.0
7.390217115380722	-0.8354766303935703	-1.177951521752938	5.0
10.06323666166597	-1.143002799724104	-1.243554780106125	2.0
5.227913973565618	-0.6178391885847027	-1.410563795808738	2.0
7.253729563413403	-0.8662389260822517	-1.420000543592247	32.0
7.358861925138486	-0.8827020966834104	-1.173884225661892	47.0
10.06310678111347	-1.212423874300525	-1.244529734853366	4.0
5.081624828174562	-0.6365528282579687	-1.372258577133565	2.0
5.373200255319821	-0.6759349368550395	-1.250277960043202	2.0
7.257244008439486	-0.9180899954887356	-1.421908633546012	46.0
7.348600967912216	-0.9335568194817261	-1.173258487801732	28.0
10.03864423305239	-1.280637864431263	-1.242579825358884	6.0
23.48942345683461	-3.025733856725819	-1.241199538257656	22.0
5.054075276916376	-0.6689715296494713	-1.366046920051105	4.0
5.368350436481155	-0.7134301744128893	-1.250277960043202	2.0
7.256495617957684	-0.9695123094747288	-1.423053487518271	16.0
10.03732846056233	-1.351748824175821	-1.243554780106125	2.0
23.54293198985029	-3.199867400894753	-1.24517707093212	7.0
5.066501831854067	-0.7066407670201491	-1.37070566286295	8.0
5.363238971815828	-0.7508906403905404	-1.250277960043202	2.0
7.253438565269104	-1.020695310927431	-1.423816723499777	6.0
8.848386232431505	-1.254585351582823	-1.097311568019948	2.0
12.88413230648579	-1.835977879846323	-1.138602623255406	4.0
28.10895362884326	-4.020519746435757	-1.488120579811865	69.0
5.078777783712307	-0.7436295954795851	-1.375364405674795	12.0
5.261601967324006	-0.7732127775591817	-1.227782854608815	1.0
6.228613681356778	-0.9197616470205205	-1.223848896345158	2.0
8.757174954504967	-1.302519003229557	-1.087074543173916	2.0
28.11253851343919	-4.216496674240569	-1.489795330411639	46.0
4.964622739496903	-0.7623545852396268	-1.345859034533108	22.0
5.198295507073692	-0.8010229947182387	-1.214285791348183	1.0
6.035787005170038	-0.9343891958118266	-1.187213569232862	2.0
7.319867995604041	-1.137100280420717	-1.173258487801732	2.0
8.58703307690917	-1.338552277097679	-1.067087970855471	2.0
28.12977016367219	-4.42009558661523	-1.4923074563113	58.0
4.949503765766471	-0.7963265109881345	-1.343270844082083	24.0
5.177039784364514	-0.8357159143417637	-1.210686574478681	1.0
5.978559615187996	-0.9693862224118701	-1.177291501473281	2.0
7.28814679565806	-1.185644355227963	-1.169504060640766	7.0
8.526296473660063	-1.391650910899454	-1.060750764998404	2.0
28.15654410834082	-4.630997334244457	-1.495447613685877	47.0
4.953349459232664	-0.83246176722123	-1.345859034533108	28.0
5.14801983387818	-0.8679500168137116	-1.205287749174429	1.0
7.29527176174468	-1.239142237970555	-1.17200701208141	7.0
69.72905086600525	-12.00670250108876	-1.235036993940805	43.0
4.793432582159092	-0.8391744304146103	-1.3039303492265	13.0
5.111282749138214	-0.8975782141972832	-1.198089315435425	1.0
5.821552074298968	-1.026496700298238	-1.149051770157553	2.0
7.298339368866506	-1.290834722803597	-1.173884225661892	7.0
11.36697187000052	-2.024766077925174	-1.010135058445358	1.0
67.54352396292668	-12.10432339607702	-1.197758653790767	39.0
4.795059429713366	-0.8740038389904462	-1.30600090158732	7.0
70.23932943088668	-12.82797931754032	1.24631124849929	49.0
5.081888319785366	-0.9290341758943762	-1.192690490131172	1.0
5.81424396652163	-1.067113455666557	-1.149051770157553	2.0
7.269722488586907	-1.338178767210735	-1.170755536361088	7.0
11.54846211103935	-2.140380938088046	-1.02756620699489	1.0
4.794535151466214	-0.9085371208652991	-1.307553815857935	5.0
67.37797412578713	-12.79210808110966	1.197095462346151	44.0
5.056133877886399	-0.9608513109632545	-1.188191469044295	1.0
5.683229777685561	-1.084134061645876	-1.124628218749355	1.0
7.260203156278782	-1.388897981724891	-1.170755536361088	7.0
55.41080510757259	-10.70053115625239	-2.957609559201242	57.0
67.84303688843974	-13.13820420604317	-1.206205618506413	40.0
4.99959355834674	-0.9863194643958106	-1.176494014218414	1.0
5.606191537573722	-1.110055816698275	-1.110889971082244	1.0
7.273580629223821	-1.444165910055846	-1.174509963522053	7.0
5.008038356242815	-1.023448967140648	-1.180093231087916	1.0
5.598505812257208	-1.148189941721814	-1.110889971082244	1.0
7.282930992729581	-1.497620565602817	-1.177638652822858	7.0
4.708475825531023	-0.9939481663901036	-1.289436482700758	115.0
4.996958333578932	-1.057579441224805	-1.17919342687054	1.0
5.590353567765059	-1.18724658749788	-1.110889971082244	1.0
7.280026499765895	-1.550073620035447	-1.17889012854318	7.0
10.17543718908832	-2.179567216091845	-0.9104288887420372	1.0
47.90462204297631	-10.28735280594169	-2.567811357103796	43.0
67.86638092583142	-14.61124952485373	-1.211755483753469	40.0
4.739169339163896	-1.035039078778352	-1.299789244504859	88.0
68.13011442859037	-14.90459978173272	1.2173402538134	46.0
5.004682483189242	-1.095773153701624	-1.182792643740042	1.0
5.543578264009573	-1.21782046048736	-1.103257611267182	1.0
7.269027623232916	-1.600859605805668	-1.17889012854318	7.0
10.15997309478928	-2.250551477238828	-0.9104288887420372	1.0
47.74584629166767	-10.60248621576136	-2.563205792954417	43.0
4.718636894143097	-1.065121653850567	-1.296165777873424	37.0
4.939889983392596	-1.117782983163024	-1.16929558047941	1.0
5.523453996607591	-1.253884214436456	-1.100967903322664	1.0
7.261526733372722	-1.652444196157944	-1.179515866403341	5.0
10.28385088357416	-2.353427327793505	-0.9229793156977	1.0
47.72906488917681	-10.94895105788581	-2.566345950328994	43.0
4.709396084125152	-1.096777288560887	-1.295648139783219	20.0
4.894212752189644	-1.142521404134783	-1.160297538305656	1.0
5.484206556207725	-1.28428953742053	-1.094862015470614	1.0
7.277034256638583	-1.708152983337835	-1.183896031424467	5.0
47.71951536792555	-11.28920982146827	-2.569904795353514	43.0
4.70162443172423	-1.129628080781505	-1.295648139783219	16.0
4.829279897584724	-1.162973921126599	-1.146800475045024	3.0
5.421672654617356	-1.309637539137355	-1.084176711729528	1.0
7.299490203783674	-1.76728115533939	-1.189527672165916	2.0
7.436703468468321	-1.804624507545191	-0.9396126376536871	2.0
10.96687347749854	-2.675463489598095	-0.5916056493702371	1.0
4.684045085422184	-1.160919293131664	-1.293059949332194	20.0
4.847311966524102	-1.204078549862854	-1.153099104566652	3.0
5.400732232770065	-1.345552622887547	-1.081887003785009	1.0
7.324987676653485	-1.829040636299668	-1.195785050767525	5.0
7.446708035813566	-1.863576799294951	-0.9425375018954105	2.0
10.90870932659128	-2.744126852184524	-0.5895122111205192	1.0
4.672082602845507	-1.192635902593652	-1.292024673151784	41.0
4.804804951783175	-1.229195830932405	-1.145000866610273	3.0
5.37599368518188	-1.379320473339224	-1.078834059858984	1.0
7.289082423177735	-1.874230620949716	-1.192030623606559	5.0
7.456583995299559	-1.921462993466389	-0.9454623661371341	2.0
10.78101187437552	-2.792174593456785	-0.5836505840213096	1.0
4.687932451258373	-1.231605237972038	-1.298753968324449	65.0
66.13890585540112	-17.40057775131678	1.193744600310192	44.0
4.790452962337978	-1.261221011245802	-1.14365116028421	3.0
5.305490633071892	-1.400780512903655	-1.066622284154885	1.0
6.359181523408528	-1.68254318204029	-1.041853537167938	2.0
10.69563883492157	-2.849887627129385	-0.5800917389967893	1.0
66.18287777468716	-17.6717609964866	-1.195699269831168	38.0
4.682950001129461	-1.265310715512629	-1.299789244504859	63.0
65.72627308108196	-17.78354502108777	1.188508878379007	43.0
4.777769287144936	-1.293615080702905	-1.142751356066834	5.0
5.28042482736412	-1.43367008097461	-1.063569340228861	1.0
6.309158479224306	-1.716525525704384	-1.035596158566329	2.0
10.65621951271252	-2.919210263384012	-0.5790450198719305	1.0
4.672367384323285	-1.296640396824301	-1.299271606414654	54.0
4.77448581839895	-1.327672372589998	-1.144101062392898	7.0
5.247850485860919	-1.463251727556148	-1.058989924339824	1.0
10.5784228555857	-2.975452818946047	-0.5759048624973538	1.0
71.54539470804049	-20.1644085779382	-1.297481704173406	51.0
4.663201337902909	-1.32922781153014	-1.299271606414654	45.0
4.77259588397279	-1.363112680919203	-1.145900670827649	7.0
5.199759458195379	-1.489042930349648	-1.051357564524762	1.0
10.36934749443316	-2.994919029628489	-0.5656470150737369	1.0
4.67073342598842	-1.36581803609432	-1.3039303492265	35.0
4.774427726366422	-1.398854436292	-1.148600083479775	7.0
10.41000203285885	-3.083583084715481	-0.5689965162732853	1.0
4.670336327127631	-1.401168047377223	-1.306518539677525	33.0
4.757080595326787	-1.429907997041015	-1.146800475045024	7.0
10.35764497855026	-3.146893152381501	-0.5673217656735111	1.0
4.671519297356808	-1.437146989208336	-1.309624368218755	24.0
4.748844400620632	-1.463657552440033	-1.147250377153712	7.0
10.43458233245469	-3.250010483027705	-0.5727647051227773	1.0
4.674269436180464	-1.473791492121749	-1.31324783485019	20.0
4.760809373214192	-1.503818449145013	-1.152649202457964	7.0
7.584066229632699	-2.416009549046152	-0.6963743845537888	1.0
10.41924972702506	-3.325206749081608	-0.5731833927727208	1.0
4.67305830160868	-1.509356705449609	-1.315836025301216	16.0
61.23218563543789	-19.80106361769813	1.123306687929316	37.0
4.765027578285364	-1.541817684093244	-1.156248419327466	7.0
6.225349395371988	-2.026342956911527	-0.8038501891003528	2.0
10.4299533543817	-3.409034234294269	-0.5750674871974668	1.0
4.66790965796495	-1.543763520417344	-1.317388939571831	15.0
59.97243501914883	-19.85721325483747	1.102712848333322	35.0
4.755997490229868	-1.575658867304083	-1.156698321436154	11.0
60.45389388473706	-20.0517569063226	3.337987289174957	43.0
61.09144457697965	-20.34610624825152	7.906151784065536	33.0
10.44378078884523	-3.494440169853282	-0.5771609254471846	1.0
4.682636665690412	-1.58498506665875	-1.324635872834701	16.0
59.60886400115631	-20.19968137219323	1.098594080414123	35.0
4.750418123091526	-1.610700599490675	-1.158048027762217	13.0
59.79422757931727	-20.29740520724517	3.309307185153824	42.0
61.80332166154925	-21.01549614553641	5.711141510768544	37.0
60.78256563678727	-20.71575199423381	7.884702779626232	33.0
10.42668899510679	-3.569853552998159	-0.577579613097128	1.0
61.77401513803304	-21.1861154763229	-1.13992137885761	32.0
4.680584865407017	-1.620797829329157	-1.327224063285726	16.0
60.20702967477949	-20.87209242346533	1.112276767060953	36.0
4.748263267274281	-1.647018387042359	-1.160297538305656	13.0
59.83974264166214	-20.77986820625731	3.319774376402413	43.0
58.49745045986182	-20.34807460522692	5.418646838107404	37.0
59.94666612465535	-20.8991036003832	7.795006942880043	32.0
10.4656033375241	-3.665002165633249	-0.5811384581216483	1.0
61.27362789682753	-21.49374324945345	-1.13342908366294	31.0
4.681902895975075	-1.657948770250035	-1.330847529917162	14.0
58.77821030947073	-20.83754914165296	1.088541494306247	34.0
4.749505648502903	-1.684687364150613	-1.16344685306647	13.0
59.35819793962724	-21.07815385019826	3.301142775979925	42.0
61.31615732810261	-21.80958726859655	5.693710362219013	37.0
60.04238218180117	-21.40374974283674	7.826692972165382	32.0
10.44352268521087	-3.739322486314565	-0.5813478019466201	1.0
60.55739095564867	-21.71846455861776	-1.122957639800571	30.0
4.682929709582741	-1.695196889590675	-1.334470996548597	14.0
58.66138640541849	-21.25828831883393	1.08909997131224	34.0
4.759613021146578	-1.725775092266092	-1.168845678370722	11.0
59.24714744387334	-21.50566451605098	3.303236214229643	42.0
4.854739539627901	-1.764102558865911	-1.004036933671379	3.0
58.5896290343457	-21.30172299063142	5.454206381148448	37.0
60.40627233947993	-22.00996721941872	7.893964849725022	33.0
10.45092406153302	-3.824495105909441	-0.5832318963713661	1.0
60.37800736728497	-22.13106743385951	-1.122468972420326	29.0
4.68004029058783	-1.731199471157062	-1.337059186999622	12.0
58.03523375123201	-21.4909179334792	1.0802341488421	33.0
4.756585685374252	-1.762346355344167	-1.171095188914161	11.0
58.67984939553195	-21.76456903207443	3.279999049657776	42.0
4.836784130822371	-1.795901653293316	-1.00289207969912	8.0
58.63372636609841	-21.78239262635808	5.472334775639961	37.0
59.71536228189457	-22.23167479376038	7.823768107923659	32.0
10.48009289479703	-3.918346172942168	-0.5863720537459427	1.0
4.694947373624179	-1.774072776937167	-1.344823758352698	14.0
58.35137484838202	-22.07242702231114	1.088960352060742	34.0
4.740521219292324	-1.794130800993496	-1.170195384696786	11.0
4.822292939518995	-1.828928533221166	-1.002510461708366	14.0
54.70622933759461	-20.75909841009265	5.119179706026451	35.0
59.74795979805484	-22.71998942922657	7.848629453978308	32.0
10.49353117165546	-4.007089902556063	-0.5886748358206322	1.0
47.04490227868713	-17.99293149682363	-0.8791824266845941	16.0
4.69866864767743	-1.813065337593722	-1.349482501164543	10.0
54.85311381161652	-21.18805630014185	1.026410927389518	29.0
4.744239849761622	-1.83350432056293	-1.174244503674975	9.0
52.53620416791985	-20.32472454612516	2.952166619751976	31.0
4.822222519290144	-1.867512663475287	-1.005181787643638	14.0
54.54139348139267	-21.13331246736387	5.117436591171497	35.0
10.51740411917558	-4.100564515963844	-0.5916056493702371	1.0
45.9718817149417	-17.95142317862407	-0.8614507817443141	16.0
4.696681235675713	-1.850071939356795	-1.352588329705774	14.0
52.57195877836467	-20.72984673108989	0.9864100118352641	27.0
4.745826207791922	-1.872301731935663	-1.177843720544477	11.0
52.50077514007687	-20.73354808150782	2.958237590676157	32.0
4.832802369975939	-1.910515305586334	-1.010142821523428	7.0
52.3285829408457	-20.69722506591786	4.923253596329714	33.0
53.1282843444461	-21.05643120492258	7.016993054581582	22.0
10.53676938903868	-4.193089805587985	-0.5943271190948701	1.0
4.698320030938827	-1.887760082382624	-1.356729434427414	12.0
52.67453266876133	-21.1857062319638	0.9910174471347069	27.0
4.749242731654322	-1.911109309200719	-1.181892839522667	11.0
53.4885226045506	-21.54563698252977	3.022087457292548	34.0
4.772344968778614	-1.924278031551971	-1.000220753763848	5.0
52.80362264752601	-21.30189408823858	4.98147363248515	33.0
4.963816188057526	-2.004504221453408	-0.8478748005180513	2.0
53.19721632040137	-21.50387156516117	7.045266742251576	22.0
10.48577627104185	-4.255700496512728	-0.5930710561450395	1.0
43.2302271540033	-17.57155573356862	-0.8145387132408961	14.0
4.702901550059701	-1.927841684531658	-1.361905815329464	12.0
53.00264742535511	-21.74877743978409	1.000022888856345	28.0
4.748404189945019	-1.949399071889528	-1.185042154283481	11.0
51.88478321725584	-21.32182778984679	2.939815334078641	31.0
4.740638375330002	-1.950079413651336	-0.9964045738563171	5.0
52.49148592914608	-21.60328252469305	4.966134221761562	33.0
4.907692722961374	-2.021802974275681	-0.8406788151262008	9.0
52.91366306141654	-21.82024297217405	7.027717556801234	22.0
6.147965900913715	-2.541543813953137	-0.5820260500688612	1.0
10.48902706978216	-4.342552647716271	-0.5949551505697854	1.0
43.0695578513043	-17.85761109284497	-0.8138406169834047	28.0
4.716407304434001	-1.970981778334469	-1.36967038668254	12.0
51.74281478437521	-21.64448828766275	0.9790101915058559	27.0
4.74041811913806	-1.983932057512806	-1.186391860609544	11.0
53.39637866647994	-22.36904673002019	3.03402005531594	34.0
4.6982866450226	-1.970155098894629	-0.9902986860042676	7.0
53.92325624811728	-22.62296507618308	5.116042099287535	35.0
4.897459749133978	-2.056691190902752	-0.8413045529863616	11.0
52.31739676337303	-21.99220855445976	6.968245317219523	21.0
54.36935167147625	-22.88827642672633	9.343204858992829	43.0
6.158064408845784	-2.594937756917376	-0.5846407223512909	10.0
10.47762666112226	-4.421613429672541	-0.5960018696946443	1.0
43.05384148837496	-18.19551046931082	-0.8158650961301296	14.0
4.713195770926077	-2.008404114674245	-1.37277621522377	10.0
43.30963667963751	-18.47312552001958	0.8218687239445551	19.0
4.742583488741659	-2.023861686586608	-1.190440979587734	11.0
51.90913432647889	-22.17325370424199	2.958237590676157	32.0
4.671781790567167	-1.997504217509488	-0.987627360068996	7.0
51.64275432192514	-22.09144912845722	4.914189399083958	32.0
4.964698056861792	-2.12582125476846	-0.8553836548399824	2.0
51.651709316336	-22.13795089001987	6.89999848491264	21.0
53.85608293585907	-23.11613321288546	9.282508286557219	42.0
6.130645455899923	-2.633933153316118	-0.5837691649238145	3.0
42.53454919304606	-18.30067239079896	-2.42671361907282	37.0
43.71912186578029	-18.83747486779951	-0.8309439752919426	14.0
4.714649209211688	-2.049009460803203	-1.377434958035615	8.0
4.745848141679674	-2.065523616641396	-1.194940000674611	9.0
51.8223801801442	-22.57604415615979	2.962424467175592	32.0
4.637572845016907	-2.022251320536229	-0.9834295621707119	15.0
51.26055777594536	-22.36323136583141	4.892923397853529	32.0
53.09262713916158	-23.20663440545269	7.114488529305699	22.0
53.1138342237532	-23.24903515858913	9.183015966791633	41.0
5.972947077005173	-2.616968559694901	-0.5705214920261704	1.0
42.67684775974121	-18.72494328860572	-2.442414405945703	38.0
4.71965938362377	-2.09047973811705	-1.383128977027871	8.0
51.71660930666438	-22.92844630991081	0.9874571562215011	27.0
4.749126207385666	-2.106506657810149	-1.199439021761488	9.0
53.19687485043049	-23.61805525221275	3.050348873663738	35.0
4.617959730333493	-2.052186317335172	-0.9822847081984526	38.0
52.06080084705428	-23.14630704793214	4.984611239224066	33.0
51.54756344846109	-22.96123490233084	6.928759649956255	21.0
5.889037390057653	-2.629361282830358	-0.564246278548339	1.0
41.81576059168352	-18.69633575770173	-2.400545640951348	36.0
4.719036862856963	-2.12973538433295	-1.387270081749511	8.0
51.67920175646585	-23.34491372938665	0.9898306834969717	27.0
4.762717332884249	-2.152451081448136	-1.206637455500492	7.0
51.68409136461274	-23.3797140915289	2.972891658424181	32.0
4.601731877607818	-2.083565705239121	-0.9819030902076995	10.0
51.77090106529623	-23.45164495926996	4.972409435239394	33.0
51.67884788462375	-23.45344159216228	6.968245317219523	21.0
5.021248234563757	-2.279852963286582	-0.6771060719589994	3.0
5.827011857330131	-2.65061096190026	-0.5600628028964514	1.0
41.13167541372679	-18.73611533205514	-2.368725379555638	34.0
4.714585089515771	-2.167470014048352	-1.390375910290741	8.0
51.88191738810356	-23.87398742349683	0.9968814556976343	28.0
4.754655095489852	-2.188908126313197	-1.208437063935243	7.0
51.59579760029332	-23.77507036533483	2.977287878748589	32.0
51.52269956368376	-23.77410041637848	4.964391106906609	33.0
5.005209623308462	-2.31485204582423	-0.6771060719589994	7.0
5.743285529375387	-2.661072459342885	-0.5537875894186199	1.0
40.48533475643177	-18.78407888113683	-2.338998556409646	33.0
4.732966984742765	-2.215069430421232	-1.400211034004637	8.0
4.750233082620852	-2.226182853193766	-1.211136476587369	7.0
51.0132667079914	-23.92893986754416	2.953003995051863	31.0
52.48858519086279	-24.65451001255016	5.073510096826677	35.0
4.98933709590959	-2.3488675379205	-0.6771060719589994	7.0
5.725039274260097	-2.700103815408832	-0.5537875894186199	1.0
39.99534170770275	-18.88863372956647	-2.318064173912468	32.0
4.72610742480044	-2.252212899597359	-1.402799224455662	8.0
4.755680853366942	-2.269362351007557	-1.216535301891622	7.0
5.670128639195113	-2.722756990346756	-0.5503013597087136	1.0
39.55290290618067	-19.0185250981177	-2.300060604964895	32.0
40.12088324338119	-19.31750216988205	-0.7772603730908585	13.0
4.720697608180184	-2.290211578452894	-1.405905052996893	8.0
40.53869303325556	-19.68453169910012	0.7866148629412425	17.0
4.755497653258036	-2.310171366238276	-1.220584420869812	7.0
5.586542732106174	-2.730776419732834	-0.5440261462308823	1.0
25.50208702931806	-12.48230707068713	-1.488015907899379	11.0
39.90244612533489	-19.55664308926546	-0.7756547516986284	13.0
4.721915779629673	-2.331665618606152	-1.411081433898943	8.0
37.47818164909259	-18.52287107802172	0.7297200179556982	14.0
4.754975672723553	-2.351088055536531	-1.224633539848001	7.0
5.560206999590939	-2.766161207849388	-0.543328900288901	1.0
25.10683432749763	-12.50686522574367	-1.470012338951806	11.0
39.87231013660377	-19.88829019298871	-0.7777490404711024	13.0
4.738735359295132	-2.380227579637653	-1.420916557612839	8.0
37.54418897996285	-18.874550342762	0.7334897377461514	44.0
4.74582608817142	-2.386901856722395	-1.226433148282752	7.0
4.840858568993461	-2.438934140197441	-1.053647272469281	1.0
5.505694656021229	-2.785952663934082	-0.5398426705789947	1.0
24.66479710733769	-12.4969316526091	-1.449077956454629	11.0
37.48545805810223	-19.01745828724635	-0.7336991666233988	23.0
4.74092530731334	-2.42292251076967	-1.426610576605095	8.0
37.03407946362053	-18.94314038680139	0.7260899174167432	29.0
4.744659993315694	-2.427965184632163	-1.230482267260942	7.0
4.848173017863843	-2.485207985059548	-1.058989924339824	3.0
5.486111025401429	-2.824321459747637	-0.5398426705789947	1.0
37.36954837526144	-19.28786217929334	-0.7340482147521445	11.0
4.74446320367521	-2.466654689173696	-1.432822233687555	8.0
37.09960818690413	-19.30460456636619	0.7299992564586948	29.0
4.758708077257817	-2.477226628214872	-1.238580505217321	8.0
4.823741809108683	-2.515362798075894	-1.057463452376811	5.0
5.466260009469997	-2.862552602117768	-0.5398426705789947	1.0
4.739081666242516	-2.506038449569189	-1.43644570031899	8.0
4.765409160668977	-2.523154270214923	-1.244879134738949	8.0
4.816470345249134	-2.55449655559068	-1.05975316032133	7.0
5.446142575737445	-2.900644227712535	-0.5398426705789947	1.0
4.750840989871721	-2.553787617513895	-1.445245547852476	9.0
4.761852193365798	-2.562921281292576	-1.248478351608451	8.0
4.816252128655644	-2.596538405597946	-1.063569340228861	7.0
5.426272503548034	-2.937647461534603	-0.5398426705789947	1.0
24.13295693147704	-13.08131999492816	-1.43861076520604	10.0
4.736286886172523	-2.588745315766876	-1.446280824032886	9.0
4.759229168922616	-2.604522346439359	-1.252527470586641	6.0
4.818666455316066	-2.641423068577899	-1.068148756117898	7.0
5.299001182849111	-2.908334928464451	-0.9573789260462129	2.0
5.370722960996356	-2.956242994844095	-0.5363564408690883	1.0
24.09701922137924	-13.28032828037722	-1.441960266405588	10.0
34.58241438687745	-19.08264404762504	-0.6894398638984478	20.0
4.749722418519778	-2.640405138180148	-1.456115947746782	6.0
4.764308476382723	-2.651780079786772	-1.258826100108269	6.0
4.823648399233033	-2.689220764004251	-1.073491407988441	7.0
5.384201637323248	-3.014063473065522	-0.5398426705789947	1.0
24.06060787384699	-13.48562283468815	-1.445519111430109	10.0
34.08225203804181	-19.12606783745758	-0.6821796628205379	20.0
4.746310379149466	-2.682053520756326	-1.460774690558627	9.0
4.769424965559428	-2.698410813122667	-1.265124729629897	6.0
4.818421134441874	-2.730573937750991	-1.076544351914466	9.0
5.363028466467284	-3.051578535591655	-0.5398426705789947	1.0
24.06305729412731	-13.70863201094013	-1.451380738529318	11.0
33.70124364173837	-19.22284999071373	-0.6772231793923494	9.0
4.749724449139299	-2.726802103034093	-1.467503985731293	6.0
4.774600482845898	-2.744408291601592	-1.271423359151525	6.0
4.813334636255522	-2.771144773958378	-1.079597295840491	7.0
5.078852283706558	-2.931094949650362	-0.7200040808376114	1.0
5.342132950393784	-3.088012537432311	-0.5398426705789947	1.0
24.09019299686375	-13.94213602747394	-1.45870777240333	11.0
4.750595772416954	-2.771576809547267	-1.473715642813753	6.0
4.768786341601536	-2.785537337533164	-1.275022576021027	6.0
4.820983995211527	-2.820542840453624	-1.08570318369254	7.0
5.320444547054912	-3.125232105418058	-0.5398426705789947	1.0
24.06113641201081	-14.15047553295716	-1.462894648902766	11.0
4.77101398915462	-2.828317612263739	-1.486138956978674	6.0
4.762629986396448	-2.826718578745112	-1.278621792890529	6.0
4.81973898795331	-2.86516595301741	-1.089900981590824	7.0
5.298496832754845	-3.162299354000032	-0.5398426705789947	1.0
24.08863442902491	-14.39391914127861	-1.470640370426722	11.0
4.772665905325456	-2.874513617616473	-1.49286825215134	6.0
4.771149766953845	-2.877005918869831	-1.28627012873822	8.0
4.818104992770476	-2.90990861357546	-1.094098779489108	7.0
5.320586506127713	-3.226070572921199	-0.5443747692018729	1.0
24.05243709545468	-14.60112145723913	-1.474617903101186	11.0
4.781006226201157	-2.92406846421467	-1.501668099684826	7.0
4.779709031569981	-2.926714981089205	-1.293918464585911	6.0
4.809901549025696	-2.949821422480963	-1.09677010542438	7.0
97.88689438301596	-60.05568906400472	10.04731402395003	37.0
6.17935088291867	-3.798589292391838	-0.8906211616048177	2.0
5.298504252816858	-3.262211641438686	-0.5443747692018729	1.0
24.06130712845839	-14.83157494993289	-1.481316905500282	11.0
4.765398966190491	-2.960432954186493	-1.503221013955441	7.0
4.779017809050583	-2.972362589081258	-1.299317289890164	6.0
4.812520255756517	-2.997861280670106	-1.102112757294923	7.0
6.152681355881297	-3.841636380436384	-0.8906211616048177	2.0
5.339793172044591	-3.339265400706712	-0.5509986056506949	1.0
24.08583409530268	-15.07974140794191	-1.48927197084921	11.0
4.778925518221126	-3.015277446902925	-1.514091413849747	7.0
4.794396809728537	-3.02854997611015	-1.309215136281295	6.0
4.81304239806226	-3.045031115661897	-1.107073791174713	7.0
95.94791499027542	-60.72609284982946	9.934360181349069	37.0
5.897499408955731	-3.735451661448753	-1.105678798904352	2.0
5.252440188623385	-3.335872326032632	-0.5443747692018729	1.0
4.778904216327429	-3.062116075882249	-1.520820709022412	7.0
95.08461526732621	-60.97295618347933	1.971633260032793	63.0
4.789539410178253	-3.072469259582557	-1.313714157368172	6.0
95.23603710192297	-61.14044918833698	5.931129249100338	63.0
4.828004999302577	-3.101904539704476	-1.115469386971281	7.0
95.27022414469765	-61.23286334542406	9.90821345852477	37.0
5.95491192723462	-3.834737547594637	-0.8696596345391324	2.0
5.269208216716148	-3.398376762646249	-0.5485582448537606	1.0
4.794653499807689	-3.11963646042435	-1.532726385097128	7.0
94.40526697168855	-61.47160671990247	1.966397538101608	63.0
4.78430165942827	-3.1164678159319	-1.318213178455049	6.0
4.825963508199409	-3.148407041146178	-1.120048802860318	7.0
94.79370214388973	-61.86598757441081	9.903332736930903	37.0
5.904735437172	-3.861007516763909	-0.8662472929237883	2.0
5.285357563308406	-3.461276645746636	-0.5527417205056482	1.0
4.795323893405403	-3.167941119414083	-1.539973318359998	7.0
93.81701613582324	-62.02551017955671	1.963116485691399	63.0
4.791685434404653	-3.169142585055302	-1.326311416411428	4.0
4.816960066888566	-3.19069493690111	-1.123101746786343	5.0
94.23990837908912	-62.44702034523004	9.89078230997524	37.0
5.304201770040086	-3.526772671043249	-0.5572738191285264	1.0
4.789134815914854	-3.212102134407092	-1.545149699262049	9.0
93.29205445300683	-62.61877931137903	1.961231625796172	3.0
4.80503692118588	-3.226416741842436	-1.336209262802558	4.0
4.820633895779364	-3.241774662239412	-1.129207634638392	5.0
93.74875289586845	-63.06782432887325	9.885204342439389	37.0
5.279451192356216	-3.563716739310581	-0.5572738191285264	1.0
4.790546318566521	-3.261766888940511	-1.552914270615124	10.0
92.83609764595221	-63.25728929845025	1.960882577667426	100.0
4.804938648562837	-3.27524978323706	-1.342507892324186	4.0
4.820585114760788	-3.290846517042266	-1.134550286508935	7.0
93.35882569095439	-63.75672785598927	9.89078230997524	37.0
5.559681021648513	-3.799670904567326	-1.066570182644294	2.0
5.303749932589063	-3.634273358375294	-0.5625031636933858	1.0
4.788318185423809	-3.309410355763756	-1.55964356578779	14.0
4.807596700053348	-3.32645559162018	-1.34970632606319	4.0
85.40550582006884	-59.13757592971624	5.444195512215988	63.0
4.829767137372006	-3.346784158143117	-1.142182646323997	7.0
85.38578799645386	-59.19009034189978	9.089646722638765	37.0
5.310961914840115	-3.693964746132913	-0.5659893934032921	1.0
4.790401844909146	-3.360509325631621	-1.567925775231071	14.0
4.809772725638089	-3.377857279479714	-1.356904759802194	4.0
4.841613188765044	-3.405268189017589	-1.150578242120565	6.0
5.285043961020327	-3.730951934377813	-0.5659893934032921	1.0
4.782561803795495	-3.405075065141106	-1.573102156133121	7.0
4.805116547959909	-3.424926262349012	-1.362303585106446	6.0
4.824113809617112	-3.443548268813415	-1.152104714083578	6.0
5.339848840794963	-3.825776333972866	-0.574704967678058	1.0
4.780595695947114	-3.454220251740932	-1.580349089395992	7.0
4.806352499773304	-3.4766627487148	-1.36950201884545	6.0
4.834934091190649	-3.502481315383501	-1.160500309880145	6.0
5.047247856915573	-3.664349075545701	-0.7658269539579468	2.0
5.313009972016169	-3.862961977211648	-0.574704967678058	1.0
26.77467126296398	-19.51011380899742	-0.5782680348929519	23.0
4.778786828157214	-3.502669170770896	-1.587596022658862	7.0
4.806143675107408	-3.526590619357485	-1.376250550475766	8.0
4.836294264271929	-3.553911052458018	-1.166606197732195	6.0
5.054156792843632	-3.72216253813315	-0.7707017276941526	2.0
5.286592745427042	-3.899036720027699	-0.574704967678058	1.0
26.64768325830833	-19.69666432547656	-0.5784076541444502	23.0
4.7914202016971	-3.563615379436859	-1.600019336823783	7.0
26.49399249350049	-19.71925575339174	0.576487889436349	28.0
4.79860018715052	-3.572859395191621	-1.381199473671331	6.0
26.48983510657602	-19.73772348393488	1.731273432516582	42.0
4.836547784788653	-3.606364913563328	-1.172712085584244	6.0
4.978485801300516	-3.716258425409312	-0.9839727851030522	2.0
5.300717894136862	-3.966886717288554	-0.5792370663009362	1.0
26.33195361966175	-19.74903871461079	-0.5745332199153732	31.0
4.792639477598118	-3.616761489207168	-1.608819184357269	7.0
26.29025516462647	-19.85432680965742	0.5750567921084918	38.0
4.792198976208371	-3.620368783660783	-1.386598298975584	6.0
26.40237752607444	-19.96071843016842	1.73462293371613	21.0
4.845697324505907	-3.666101755851785	-1.181107681380812	8.0
4.933523954400876	-3.73661201653397	-0.9802183579420867	2.0
5.326845625513563	-4.044761448676345	-0.5851636568077769	1.0
26.02634816122515	-19.80523695572193	-0.5708682145635436	23.0
4.857771559124736	-3.719423452853283	-1.639359831679367	2.0
26.24465782121953	-20.10913963267502	0.5771161760680912	28.0
4.796194005087791	-3.676260801302341	-1.395146439040651	6.0
4.826214610813637	-3.704623191326443	-1.182634153343825	8.0
4.929246111702463	-3.787813949871985	-0.9845985229632132	5.0
5.386865169750095	-4.149942622293543	-0.5949250999955147	1.0
26.05523009246432	-20.1159871818111	-0.5745681247282478	7.0
4.835393591001504	-3.754772524429582	-1.640395107859777	2.0
26.04559135343807	-20.23946089593878	0.5757548883659831	38.0
4.803369234397439	-3.733938218072358	-1.404594383323093	6.0
4.831869886470448	-3.76150807893226	-1.190266513158887	8.0
4.918930315147429	-3.833420862477375	-0.9877272122640177	5.0
5.371053026180479	-4.196326528560216	-0.5963195918794773	1.0
4.906184836332374	-3.864948118039306	-1.673523945632899	4.0
4.812378449696569	-3.795135362604143	-1.414942131822911	4.0
4.833224951654515	-3.817051065069331	-1.197135636992442	6.0
4.926139264579486	-3.894620166326914	-0.9946103287257879	5.0
5.338503644547354	-4.231245849790922	-0.5959709689084866	1.0
75.07138374776497	-59.62895212839565	-1.673441443645367	63.0
4.899527628279372	-3.916844938516593	-1.68077087889577	4.0
4.952462370835458	-3.963414846598889	-1.464431363778561	2.0
74.81663106800924	-59.91798794317042	5.023414424022721	63.0
4.83949051627034	-3.878549985458439	-1.20553123278901	6.0
4.922796563451913	-3.94954951663778	-0.9996162316070754	5.0
5.208727347068761	-4.189421296563108	-0.5848150338367862	3.0
4.885568050476493	-3.961905578687339	-1.685429621707615	11.0
73.90094098387462	-59.97204750570725	1.661259663952143	63.0
4.909542491272041	-3.98561037749014	-1.459932342691684	2.0
4.827529017990299	-3.924625640219179	-1.209347412696541	6.0
4.928810269935906	-4.011252221602543	-1.006499348068845	5.0
73.83753245075631	-60.13463407801537	11.69238854497666	63.0
5.191703144513102	-4.235758828262891	-0.5862095257207488	1.0
23.98483200669839	-19.61039485361034	-0.5407802658656669	14.0
4.839089106475186	-3.979117720460734	-1.678700326534949	7.0
23.43670696286964	-19.28540459325812	0.5297852498101783	33.0
4.870263290352376	-4.009027975616914	-1.456333125822182	2.0
4.82191184474716	-3.974877382829445	-1.214690064567084	6.0
4.941005940487038	-4.077397977063639	-1.014633940250937	5.0
72.81424419740551	-60.13022917509966	11.59489307025254	63.0
4.861633036485273	-4.054874406842747	-1.696300021601921	4.0
23.11420311818403	-19.29222588837214	0.5255268626394811	8.0
4.922933940483916	-4.110375483816839	-1.48062783969132	2.0
4.836216613858919	-4.04370474572249	-1.225375368308171	4.0
4.936656578871356	-4.132079429607259	-1.019639843132225	5.0
71.86006133209268	-60.19096621003585	11.50958452986894	63.0
71.29568471364492	-59.95152304863449	-1.625970898135956	63.0
4.850905078539996	-4.103688329166602	-1.702511678684382	4.0
22.59587144536302	-19.12881718192456	0.5167657546079648	32.0
4.920886566164368	-4.167312571511135	-1.488726077647699	2.0
4.858777208851595	-4.120542727737887	-1.238350379993776	4.0
4.94383046715561	-4.197125428831281	-1.027148697454156	5.0
70.96911908786618	-60.29274317786898	11.43402553695775	63.0
23.30308870399745	-19.87459889993626	-0.5346021139868685	28.0
4.86905446294327	-4.177708703063496	-1.719076097570943	2.0
22.7394205936549	-19.52448815340779	0.5231533353640105	8.0
5.036546327555928	-4.325999389256067	-1.532816484299096	4.0
4.850729970174428	-4.172285991988532	-1.243693031864319	4.0
4.951831919751633	-4.263760413859127	-1.034970420706167	2.0
70.03817357642123	-60.34875131386617	11.35164186081587	63.0
15.8811313453808	-13.68888865245776	-2.574368010090335	5.0
14.88169477183368	-12.84553434478617	-1.719931427382286	2.0
69.48677605663362	-60.10647381393401	-1.603701627521982	63.0
4.863087305796092	-4.231889782992212	-1.727358307014224	18.0
22.78654226322671	-19.842976806949	0.5274117225347077	16.0
4.979773584929433	-4.338014904551234	-1.524718246342717	2.0
22.41417481573462	-19.53935699233338	1.558355433089895	25.0
4.86882591862052	-4.24734755918274	-1.255904807568418	4.0
69.17059310295058	-60.36261734339955	8.031924628653186	37.0
4.960630002789815	-4.332009453764952	-1.04310501288826	2.0
69.11889827984908	-60.4025585663226	11.27072061679485	63.0
14.70170788734135	-12.87037233930924	-1.709472738252567	2.0
21.3235058492261	-18.68704890324341	-1.485922469649661	11.0
22.88953785789638	-20.08065449865548	-0.531495585641032	7.0
4.856599818603832	-4.286190173052098	-1.735640516457504	2.0
22.17682252464494	-19.58592056666204	0.5164516112920937	7.0
4.858821306222591	-4.292678474148022	-1.496824315604078	4.0
22.09466816269858	-19.53396601734507	1.545585459766617	33.0
4.886107928743169	-4.322863129906196	-1.268116583272517	4.0
68.74451635845732	-60.84140334925505	8.031576005682195	37.0
4.97315096938013	-4.404516596204325	-1.052178211860593	75.0
68.89162682677458	-61.05742259213391	11.30289412345381	63.0
15.18046073586195	-13.4589035259075	-2.491009379201215	4.0
14.46548750903067	-12.84306079149837	-1.692390212674026	2.0
25.19934183828315	-22.39662854102366	-1.766861882761784	33.0
67.59500125342726	-60.14035099096803	-1.579268258509785	63.0
4.879141545908095	-4.365521651330039	-1.754275487704886	2.0
22.20687001686306	-19.88314776847592	0.5202911407082961	24.0
4.89045704406823	-4.380258686744135	-1.515720204168963	2.0
22.04448159985132	-19.75855710649116	1.551447086865827	25.0
4.906261226116908	-4.400590995131163	-1.281091594958122	4.0
68.79740758513275	-61.72838343030838	8.086658435098716	37.0
4.985680616627684	-4.476537750537588	-1.061251410832926	100.0
68.96170780578942	-61.96275928858694	11.38332789010121	63.0
15.1800328403521	-13.64419494173611	-2.506121177783453	4.0
14.29480460824593	-12.86658298213508	-1.682628769486289	2.0
24.94244520065956	-22.47404869015914	-1.759534848887771	33.0
66.81285236026733	-60.26422037276913	-1.570542055291143	63.0
5.882921314999385	-5.338050401742175	-2.128527826923131	10.0
22.07936298434567	-20.04844933369646	0.5205703792112926	32.0
4.908802895183949	-4.45884261463132	-1.531016875864345	4.0
68.67980307980605	-62.42810860023246	4.864103773219199	63.0
4.924798687980405	-4.479651046726304	-1.294066606643727	4.0
68.92476972561457	-62.71671490158177	8.152896799586935	37.0
69.06741658736935	-62.93471106241748	11.47302372684739	63.0
15.37195487138124	-14.01194365786773	-2.553893960398271	10.0
14.12516893640185	-12.89353151410498	-1.673215949269542	2.0
24.70827053265323	-22.57757260775529	-1.754091909438505	33.0
65.87702701875317	-60.25949843495329	-1.558395180410794	63.0
5.843606750673748	-5.375354461801979	-2.127492550742721	8.0
21.83645628582118	-20.10076241293062	0.5180572326843238	16.0
4.924212335655391	-4.534394031760787	-1.545413743342353	4.0
68.81434701290162	-63.41115972542573	4.904088443788809	63.0
8.848804531370993	-8.159724672892542	-2.339699901307192	5.0
68.99419759726673	-63.64372127414912	8.212162704655343	37.0
11.51619563565694	-10.63056152839588	-2.482302091258383	8.0
69.11571606591295	-63.84518369072728	11.55297001612117	63.0
15.27330735887129	-14.11355737062403	-2.55340648302465	10.0
13.97273559037313	-12.92983819817267	-1.665546243907748	2.0
65.0782308231895	-60.34754899158176	-1.549180309811908	63.0
5.804524960522624	-5.414701441780207	-2.126974912652516	12.0
22.02887913133968	-20.56383699310529	0.526015530019725	8.0
4.963651056882669	-4.635162351788249	-1.567908848776739	4.0
68.83986698601804	-64.32912263987026	4.937792799609264	63.0
8.788755805461806	-8.21861975440868	-2.338936665325686	8.0
68.98761442967056	-64.5348870097621	8.264804773274928	37.0
11.41285807811679	-10.68370053257245	-2.476044712656774	8.0
69.02469928393681	-64.65999421417173	11.6129297330765	63.0
15.09039219129541	-14.14111272893262	-2.539269639189653	10.0
13.80512665449008	-12.95481141274862	-1.656307735176496	15.0
64.2387098374793	-60.40861416527889	-1.539197533329782	63.0
5.753001347542501	-5.444148195118038	-2.12231616984067	8.0
21.78533473237311	-20.63019584337584	0.5237118123700036	16.0
6.88835065904443	-6.525385622394571	-2.190573367200557	5.0
68.67927074179549	-65.10588441743242	4.959564557406329	63.0
8.704082134941624	-8.25697881613541	-2.332067541492131	8.0
68.83621940739606	-65.32313312422998	8.302456054141917	37.0
11.30746731190636	-10.73788980734623	-2.469787334055165	8.0
68.88544843312908	-65.46130911981872	11.66801467629563	63.0
14.96004017359089	-14.2213802660118	-2.534394865453447	10.0
13.68753908073496	-13.02991274246794	-1.653344439923075	7.0
63.38808113052787	-60.46922200855573	-1.529144947221907	63.0
5.699521599822033	-5.469465074730795	-2.116622150848415	12.0
21.53693102521951	-20.68205623156608	0.5211986658430348	8.0
6.828573923936398	-6.559815631448761	-2.18607434611368	5.0
68.52544490797854	-65.87443706788403	4.981545659028365	63.0
8.617928650391224	-8.290321517465292	-2.324435181677069	11.0
68.7374087200472	-66.14748642365271	8.346033925515746	37.0
11.18669554027582	-10.77272125507692	-2.45977552829259	4.0
68.74981151564174	-66.25192818231532	11.72309961951476	63.0
14.82895095852207	-14.2951639201981	-2.52903261434362	10.0
13.55897070283495	-13.08917321081968	-1.648812341300197	15.0
